     32.56000000      28.49000000       0.00000000
     32.56000000      30.52500000       2.03500000
     34.59500000      28.49000000       2.03500000
     34.59500000      30.52500000       0.00000000
     32.56000000      28.49000000       4.07000000
     32.56000000      30.52500000       6.10500000
     34.59500000      28.49000000       6.10500000
     34.59500000      30.52500000       4.07000000
     32.56000000      28.49000000       8.14000000
     32.56000000      30.52500000      10.17500000
     34.59500000      28.49000000      10.17500000
     34.59500000      30.52500000       8.14000000
     32.56000000      28.49000000      12.21000000
     32.56000000      30.52500000      14.24500000
     34.59500000      28.49000000      14.24500000
     34.59500000      30.52500000      12.21000000
     32.56000000      28.49000000      16.28000000
     32.56000000      30.52500000      18.31500000
     34.59500000      28.49000000      18.31500000
     34.59500000      30.52500000      16.28000000
     32.56000000      28.49000000      20.35000000
     32.56000000      30.52500000      22.38500000
     34.59500000      28.49000000      22.38500000
     34.59500000      30.52500000      20.35000000
     32.56000000      28.49000000      24.42000000
     32.56000000      30.52500000      26.45500000
     34.59500000      28.49000000      26.45500000
     34.59500000      30.52500000      24.42000000
     32.56000000      28.49000000      28.49000000
     32.56000000      30.52500000      30.52500000
     34.59500000      28.49000000      30.52500000
     34.59500000      30.52500000      28.49000000
     32.56000000      28.49000000      32.56000000
     32.56000000      30.52500000      34.59500000
     34.59500000      28.49000000      34.59500000
     34.59500000      30.52500000      32.56000000
     32.56000000      28.49000000      36.63000000
     32.56000000      30.52500000      38.66500000
     34.59500000      28.49000000      38.66500000
     34.59500000      30.52500000      36.63000000
     32.56000000      28.49000000      40.70000000
     32.56000000      30.52500000      42.73500000
     34.59500000      28.49000000      42.73500000
     34.59500000      30.52500000      40.70000000
     32.56000000      28.49000000      44.77000000
     32.56000000      30.52500000      46.80500000
     34.59500000      28.49000000      46.80500000
     34.59500000      30.52500000      44.77000000
     32.56000000      28.49000000      48.84000000
     34.59500000      30.52500000      48.84000000
     32.56000000      32.56000000       0.00000000
     32.56000000      34.59500000       2.03500000
     34.59500000      32.56000000       2.03500000
     32.56000000      32.56000000       4.07000000
     32.56000000      34.59500000       6.10500000
     34.59500000      32.56000000       6.10500000
     34.59500000      34.59500000       4.07000000
     32.56000000      32.56000000       8.14000000
     32.56000000      34.59500000      10.17500000
     34.59500000      32.56000000      10.17500000
     34.59500000      34.59500000       8.14000000
     32.56000000      32.56000000      12.21000000
     32.56000000      34.59500000      14.24500000
     34.59500000      32.56000000      14.24500000
     34.59500000      34.59500000      12.21000000
     32.56000000      32.56000000      16.28000000
     32.56000000      34.59500000      18.31500000
     34.59500000      32.56000000      18.31500000
     34.59500000      34.59500000      16.28000000
     32.56000000      32.56000000      20.35000000
     32.56000000      34.59500000      22.38500000
     34.59500000      32.56000000      22.38500000
     34.59500000      34.59500000      20.35000000
     32.56000000      32.56000000      24.42000000
     32.56000000      34.59500000      26.45500000
     34.59500000      32.56000000      26.45500000
     34.59500000      34.59500000      24.42000000
     32.56000000      32.56000000      28.49000000
     32.56000000      34.59500000      30.52500000
     34.59500000      32.56000000      30.52500000
     34.59500000      34.59500000      28.49000000
     32.56000000      32.56000000      32.56000000
     32.56000000      34.59500000      34.59500000
     34.59500000      32.56000000      34.59500000
     34.59500000      34.59500000      32.56000000
     32.56000000      32.56000000      36.63000000
     32.56000000      34.59500000      38.66500000
     34.59500000      32.56000000      38.66500000
     34.59500000      34.59500000      36.63000000
     32.56000000      32.56000000      40.70000000
     32.56000000      34.59500000      42.73500000
     34.59500000      32.56000000      42.73500000
     34.59500000      34.59500000      40.70000000
     32.56000000      32.56000000      44.77000000
     32.56000000      34.59500000      46.80500000
     34.59500000      32.56000000      46.80500000
     34.59500000      34.59500000      44.77000000
     32.56000000      32.56000000      48.84000000
     32.56000000      36.63000000       4.07000000
     32.56000000      38.66500000       6.10500000
     34.59500000      36.63000000       6.10500000
     32.56000000      36.63000000       8.14000000
     32.56000000      38.66500000      10.17500000
     34.59500000      36.63000000      10.17500000
     34.59500000      38.66500000       8.14000000
     32.56000000      36.63000000      12.21000000
     32.56000000      38.66500000      14.24500000
     34.59500000      36.63000000      14.24500000
     34.59500000      38.66500000      12.21000000
     32.56000000      36.63000000      16.28000000
     32.56000000      38.66500000      18.31500000
     34.59500000      36.63000000      18.31500000
     34.59500000      38.66500000      16.28000000
     32.56000000      36.63000000      20.35000000
     32.56000000      38.66500000      22.38500000
     34.59500000      36.63000000      22.38500000
     34.59500000      38.66500000      20.35000000
     32.56000000      36.63000000      24.42000000
     32.56000000      38.66500000      26.45500000
     34.59500000      36.63000000      26.45500000
     34.59500000      38.66500000      24.42000000
     32.56000000      36.63000000      28.49000000
     32.56000000      38.66500000      30.52500000
     34.59500000      36.63000000      30.52500000
     34.59500000      38.66500000      28.49000000
     32.56000000      36.63000000      32.56000000
     32.56000000      38.66500000      34.59500000
     34.59500000      36.63000000      34.59500000
     34.59500000      38.66500000      32.56000000
     32.56000000      36.63000000      36.63000000
     32.56000000      38.66500000      38.66500000
     34.59500000      36.63000000      38.66500000
     34.59500000      38.66500000      36.63000000
     32.56000000      36.63000000      40.70000000
     32.56000000      38.66500000      42.73500000
     34.59500000      36.63000000      42.73500000
     34.59500000      38.66500000      40.70000000
     32.56000000      36.63000000      44.77000000
     32.56000000      40.70000000       8.14000000
     32.56000000      42.73500000      10.17500000
     34.59500000      40.70000000      10.17500000
     32.56000000      40.70000000      12.21000000
     32.56000000      42.73500000      14.24500000
     34.59500000      40.70000000      14.24500000
     34.59500000      42.73500000      12.21000000
     32.56000000      40.70000000      16.28000000
     32.56000000      42.73500000      18.31500000
     34.59500000      40.70000000      18.31500000
     34.59500000      42.73500000      16.28000000
     32.56000000      40.70000000      20.35000000
     32.56000000      42.73500000      22.38500000
     34.59500000      40.70000000      22.38500000
     34.59500000      42.73500000      20.35000000
     32.56000000      40.70000000      24.42000000
     32.56000000      42.73500000      26.45500000
     34.59500000      40.70000000      26.45500000
     34.59500000      42.73500000      24.42000000
     32.56000000      40.70000000      28.49000000
     32.56000000      42.73500000      30.52500000
     34.59500000      40.70000000      30.52500000
     34.59500000      42.73500000      28.49000000
     32.56000000      40.70000000      32.56000000
     32.56000000      42.73500000      34.59500000
     34.59500000      40.70000000      34.59500000
     34.59500000      42.73500000      32.56000000
     32.56000000      40.70000000      36.63000000
     32.56000000      42.73500000      38.66500000
     34.59500000      40.70000000      38.66500000
     34.59500000      42.73500000      36.63000000
     32.56000000      40.70000000      40.70000000
     32.56000000      44.77000000      12.21000000
     32.56000000      46.80500000      14.24500000
     34.59500000      44.77000000      14.24500000
     32.56000000      44.77000000      16.28000000
     32.56000000      46.80500000      18.31500000
     34.59500000      44.77000000      18.31500000
     34.59500000      46.80500000      16.28000000
     32.56000000      44.77000000      20.35000000
     32.56000000      46.80500000      22.38500000
     34.59500000      44.77000000      22.38500000
     34.59500000      46.80500000      20.35000000
     32.56000000      44.77000000      24.42000000
     32.56000000      46.80500000      26.45500000
     34.59500000      44.77000000      26.45500000
     34.59500000      46.80500000      24.42000000
     32.56000000      44.77000000      28.49000000
     32.56000000      46.80500000      30.52500000
     34.59500000      44.77000000      30.52500000
     34.59500000      46.80500000      28.49000000
     32.56000000      44.77000000      32.56000000
     32.56000000      46.80500000      34.59500000
     34.59500000      44.77000000      34.59500000
     34.59500000      46.80500000      32.56000000
     32.56000000      44.77000000      36.63000000
     32.56000000      48.84000000      16.28000000
     34.59500000      48.84000000      18.31500000
     32.56000000      48.84000000      20.35000000
     34.59500000      48.84000000      22.38500000
     32.56000000      48.84000000      24.42000000
     34.59500000      48.84000000      26.45500000
     32.56000000      48.84000000      28.49000000
     34.59500000      48.84000000      30.52500000
     32.56000000      48.84000000      32.56000000
     36.63000000       2.03500000      18.31500000
     36.63000000       0.00000000      20.35000000
     36.63000000       2.03500000      22.38500000
     38.66500000       2.03500000      20.35000000
     36.63000000       0.00000000      24.42000000
     36.63000000       2.03500000      26.45500000
     38.66500000       2.03500000      24.42000000
     36.63000000       0.00000000      28.49000000
     36.63000000       2.03500000      30.52500000
     38.66500000       2.03500000      28.49000000
     36.63000000       6.10500000      14.24500000
     36.63000000       4.07000000      16.28000000
     36.63000000       6.10500000      18.31500000
     38.66500000       4.07000000      18.31500000
     38.66500000       6.10500000      16.28000000
     36.63000000       4.07000000      20.35000000
     36.63000000       6.10500000      22.38500000
     38.66500000       4.07000000      22.38500000
     38.66500000       6.10500000      20.35000000
     36.63000000       4.07000000      24.42000000
     36.63000000       6.10500000      26.45500000
     38.66500000       4.07000000      26.45500000
     38.66500000       6.10500000      24.42000000
     36.63000000       4.07000000      28.49000000
     36.63000000       6.10500000      30.52500000
     38.66500000       4.07000000      30.52500000
     38.66500000       6.10500000      28.49000000
     36.63000000       4.07000000      32.56000000
     36.63000000       6.10500000      34.59500000
     38.66500000       6.10500000      32.56000000
     36.63000000      10.17500000      10.17500000
     36.63000000       8.14000000      12.21000000
     36.63000000      10.17500000      14.24500000
     38.66500000       8.14000000      14.24500000
     38.66500000      10.17500000      12.21000000
     36.63000000       8.14000000      16.28000000
     36.63000000      10.17500000      18.31500000
     38.66500000       8.14000000      18.31500000
     38.66500000      10.17500000      16.28000000
     36.63000000       8.14000000      20.35000000
     36.63000000      10.17500000      22.38500000
     38.66500000       8.14000000      22.38500000
     38.66500000      10.17500000      20.35000000
     36.63000000       8.14000000      24.42000000
     36.63000000      10.17500000      26.45500000
     38.66500000       8.14000000      26.45500000
     38.66500000      10.17500000      24.42000000
     36.63000000       8.14000000      28.49000000
     36.63000000      10.17500000      30.52500000
     38.66500000       8.14000000      30.52500000
     38.66500000      10.17500000      28.49000000
     36.63000000       8.14000000      32.56000000
     36.63000000      10.17500000      34.59500000
     38.66500000       8.14000000      34.59500000
     38.66500000      10.17500000      32.56000000
     36.63000000       8.14000000      36.63000000
     36.63000000      10.17500000      38.66500000
     38.66500000      10.17500000      36.63000000
     36.63000000      14.24500000       6.10500000
     36.63000000      12.21000000       8.14000000
     36.63000000      14.24500000      10.17500000
     38.66500000      12.21000000      10.17500000
     38.66500000      14.24500000       8.14000000
     36.63000000      12.21000000      12.21000000
     36.63000000      14.24500000      14.24500000
     38.66500000      12.21000000      14.24500000
     38.66500000      14.24500000      12.21000000
     36.63000000      12.21000000      16.28000000
     36.63000000      14.24500000      18.31500000
     38.66500000      12.21000000      18.31500000
     38.66500000      14.24500000      16.28000000
     36.63000000      12.21000000      20.35000000
     36.63000000      14.24500000      22.38500000
     38.66500000      12.21000000      22.38500000
     38.66500000      14.24500000      20.35000000
     36.63000000      12.21000000      24.42000000
     36.63000000      14.24500000      26.45500000
     38.66500000      12.21000000      26.45500000
     38.66500000      14.24500000      24.42000000
     36.63000000      12.21000000      28.49000000
     36.63000000      14.24500000      30.52500000
     38.66500000      12.21000000      30.52500000
     38.66500000      14.24500000      28.49000000
     36.63000000      12.21000000      32.56000000
     36.63000000      14.24500000      34.59500000
     38.66500000      12.21000000      34.59500000
     38.66500000      14.24500000      32.56000000
     36.63000000      12.21000000      36.63000000
     36.63000000      14.24500000      38.66500000
     38.66500000      12.21000000      38.66500000
     38.66500000      14.24500000      36.63000000
     36.63000000      12.21000000      40.70000000
     36.63000000      14.24500000      42.73500000
     38.66500000      14.24500000      40.70000000
     36.63000000      18.31500000       2.03500000
     36.63000000      16.28000000       4.07000000
     36.63000000      18.31500000       6.10500000
     38.66500000      16.28000000       6.10500000
     38.66500000      18.31500000       4.07000000
     36.63000000      16.28000000       8.14000000
     36.63000000      18.31500000      10.17500000
     38.66500000      16.28000000      10.17500000
     38.66500000      18.31500000       8.14000000
     36.63000000      16.28000000      12.21000000
     36.63000000      18.31500000      14.24500000
     38.66500000      16.28000000      14.24500000
     38.66500000      18.31500000      12.21000000
     36.63000000      16.28000000      16.28000000
     36.63000000      18.31500000      18.31500000
     38.66500000      16.28000000      18.31500000
     38.66500000      18.31500000      16.28000000
     36.63000000      16.28000000      20.35000000
     36.63000000      18.31500000      22.38500000
     38.66500000      16.28000000      22.38500000
     38.66500000      18.31500000      20.35000000
     36.63000000      16.28000000      24.42000000
     36.63000000      18.31500000      26.45500000
     38.66500000      16.28000000      26.45500000
     38.66500000      18.31500000      24.42000000
     36.63000000      16.28000000      28.49000000
     36.63000000      18.31500000      30.52500000
     38.66500000      16.28000000      30.52500000
     38.66500000      18.31500000      28.49000000
     36.63000000      16.28000000      32.56000000
     36.63000000      18.31500000      34.59500000
     38.66500000      16.28000000      34.59500000
     38.66500000      18.31500000      32.56000000
     36.63000000      16.28000000      36.63000000
     36.63000000      18.31500000      38.66500000
     38.66500000      16.28000000      38.66500000
     38.66500000      18.31500000      36.63000000
     36.63000000      16.28000000      40.70000000
     36.63000000      18.31500000      42.73500000
     38.66500000      16.28000000      42.73500000
     38.66500000      18.31500000      40.70000000
     36.63000000      16.28000000      44.77000000
     36.63000000      18.31500000      46.80500000
     38.66500000      18.31500000      44.77000000
     36.63000000      20.35000000       0.00000000
     36.63000000      22.38500000       2.03500000
     38.66500000      20.35000000       2.03500000
     36.63000000      20.35000000       4.07000000
     36.63000000      22.38500000       6.10500000
     38.66500000      20.35000000       6.10500000
     38.66500000      22.38500000       4.07000000
     36.63000000      20.35000000       8.14000000
     36.63000000      22.38500000      10.17500000
     38.66500000      20.35000000      10.17500000
     38.66500000      22.38500000       8.14000000
     36.63000000      20.35000000      12.21000000
     36.63000000      22.38500000      14.24500000
     38.66500000      20.35000000      14.24500000
     38.66500000      22.38500000      12.21000000
     36.63000000      20.35000000      16.28000000
     36.63000000      22.38500000      18.31500000
     38.66500000      20.35000000      18.31500000
     38.66500000      22.38500000      16.28000000
     36.63000000      20.35000000      20.35000000
     36.63000000      22.38500000      22.38500000
     38.66500000      20.35000000      22.38500000
     38.66500000      22.38500000      20.35000000
     36.63000000      20.35000000      24.42000000
     36.63000000      22.38500000      26.45500000
     38.66500000      20.35000000      26.45500000
     38.66500000      22.38500000      24.42000000
     36.63000000      20.35000000      28.49000000
     36.63000000      22.38500000      30.52500000
     38.66500000      20.35000000      30.52500000
     38.66500000      22.38500000      28.49000000
     36.63000000      20.35000000      32.56000000
     36.63000000      22.38500000      34.59500000
     38.66500000      20.35000000      34.59500000
     38.66500000      22.38500000      32.56000000
     36.63000000      20.35000000      36.63000000
     36.63000000      22.38500000      38.66500000
     38.66500000      20.35000000      38.66500000
     38.66500000      22.38500000      36.63000000
     36.63000000      20.35000000      40.70000000
     36.63000000      22.38500000      42.73500000
     38.66500000      20.35000000      42.73500000
     38.66500000      22.38500000      40.70000000
     36.63000000      20.35000000      44.77000000
     36.63000000      22.38500000      46.80500000
     38.66500000      20.35000000      46.80500000
     38.66500000      22.38500000      44.77000000
     36.63000000      20.35000000      48.84000000
     36.63000000      24.42000000       0.00000000
     36.63000000      26.45500000       2.03500000
     38.66500000      24.42000000       2.03500000
     36.63000000      24.42000000       4.07000000
     36.63000000      26.45500000       6.10500000
     38.66500000      24.42000000       6.10500000
     38.66500000      26.45500000       4.07000000
     36.63000000      24.42000000       8.14000000
     36.63000000      26.45500000      10.17500000
     38.66500000      24.42000000      10.17500000
     38.66500000      26.45500000       8.14000000
     36.63000000      24.42000000      12.21000000
     36.63000000      26.45500000      14.24500000
     38.66500000      24.42000000      14.24500000
     38.66500000      26.45500000      12.21000000
     36.63000000      24.42000000      16.28000000
     36.63000000      26.45500000      18.31500000
     38.66500000      24.42000000      18.31500000
     38.66500000      26.45500000      16.28000000
     36.63000000      24.42000000      20.35000000
     36.63000000      26.45500000      22.38500000
     38.66500000      24.42000000      22.38500000
     38.66500000      26.45500000      20.35000000
     36.63000000      24.42000000      24.42000000
     36.63000000      26.45500000      26.45500000
     38.66500000      24.42000000      26.45500000
     38.66500000      26.45500000      24.42000000
     36.63000000      24.42000000      28.49000000
     36.63000000      26.45500000      30.52500000
     38.66500000      24.42000000      30.52500000
     38.66500000      26.45500000      28.49000000
     36.63000000      24.42000000      32.56000000
     36.63000000      26.45500000      34.59500000
     38.66500000      24.42000000      34.59500000
     38.66500000      26.45500000      32.56000000
     36.63000000      24.42000000      36.63000000
     36.63000000      26.45500000      38.66500000
     38.66500000      24.42000000      38.66500000
     38.66500000      26.45500000      36.63000000
     36.63000000      24.42000000      40.70000000
     36.63000000      26.45500000      42.73500000
     38.66500000      24.42000000      42.73500000
     38.66500000      26.45500000      40.70000000
     36.63000000      24.42000000      44.77000000
     36.63000000      26.45500000      46.80500000
     38.66500000      24.42000000      46.80500000
     38.66500000      26.45500000      44.77000000
     36.63000000      24.42000000      48.84000000
     36.63000000      28.49000000       0.00000000
     36.63000000      30.52500000       2.03500000
     38.66500000      28.49000000       2.03500000
     36.63000000      28.49000000       4.07000000
     36.63000000      30.52500000       6.10500000
     38.66500000      28.49000000       6.10500000
     38.66500000      30.52500000       4.07000000
     36.63000000      28.49000000       8.14000000
     36.63000000      30.52500000      10.17500000
     38.66500000      28.49000000      10.17500000
     38.66500000      30.52500000       8.14000000
     36.63000000      28.49000000      12.21000000
     36.63000000      30.52500000      14.24500000
     38.66500000      28.49000000      14.24500000
     38.66500000      30.52500000      12.21000000
     36.63000000      28.49000000      16.28000000
     36.63000000      30.52500000      18.31500000
     38.66500000      28.49000000      18.31500000
     38.66500000      30.52500000      16.28000000
     36.63000000      28.49000000      20.35000000
     36.63000000      30.52500000      22.38500000
     38.66500000      28.49000000      22.38500000
     38.66500000      30.52500000      20.35000000
     36.63000000      28.49000000      24.42000000
     36.63000000      30.52500000      26.45500000
     38.66500000      28.49000000      26.45500000
     38.66500000      30.52500000      24.42000000
     36.63000000      28.49000000      28.49000000
     36.63000000      30.52500000      30.52500000
     38.66500000      28.49000000      30.52500000
     38.66500000      30.52500000      28.49000000
     36.63000000      28.49000000      32.56000000
     36.63000000      30.52500000      34.59500000
     38.66500000      28.49000000      34.59500000
     38.66500000      30.52500000      32.56000000
     36.63000000      28.49000000      36.63000000
     36.63000000      30.52500000      38.66500000
     38.66500000      28.49000000      38.66500000
     38.66500000      30.52500000      36.63000000
     36.63000000      28.49000000      40.70000000
     36.63000000      30.52500000      42.73500000
     38.66500000      28.49000000      42.73500000
     38.66500000      30.52500000      40.70000000
     36.63000000      28.49000000      44.77000000
     36.63000000      30.52500000      46.80500000
     38.66500000      28.49000000      46.80500000
     38.66500000      30.52500000      44.77000000
     36.63000000      28.49000000      48.84000000
     36.63000000      32.56000000       4.07000000
     36.63000000      34.59500000       6.10500000
     38.66500000      32.56000000       6.10500000
     36.63000000      32.56000000       8.14000000
     36.63000000      34.59500000      10.17500000
     38.66500000      32.56000000      10.17500000
     38.66500000      34.59500000       8.14000000
     36.63000000      32.56000000      12.21000000
     36.63000000      34.59500000      14.24500000
     38.66500000      32.56000000      14.24500000
     38.66500000      34.59500000      12.21000000
     36.63000000      32.56000000      16.28000000
     36.63000000      34.59500000      18.31500000
     38.66500000      32.56000000      18.31500000
     38.66500000      34.59500000      16.28000000
     36.63000000      32.56000000      20.35000000
     36.63000000      34.59500000      22.38500000
     38.66500000      32.56000000      22.38500000
     38.66500000      34.59500000      20.35000000
     36.63000000      32.56000000      24.42000000
     36.63000000      34.59500000      26.45500000
     38.66500000      32.56000000      26.45500000
     38.66500000      34.59500000      24.42000000
     36.63000000      32.56000000      28.49000000
     36.63000000      34.59500000      30.52500000
     38.66500000      32.56000000      30.52500000
     38.66500000      34.59500000      28.49000000
     36.63000000      32.56000000      32.56000000
     36.63000000      34.59500000      34.59500000
     38.66500000      32.56000000      34.59500000
     38.66500000      34.59500000      32.56000000
     36.63000000      32.56000000      36.63000000
     36.63000000      34.59500000      38.66500000
     38.66500000      32.56000000      38.66500000
     38.66500000      34.59500000      36.63000000
     36.63000000      32.56000000      40.70000000
     36.63000000      34.59500000      42.73500000
     38.66500000      32.56000000      42.73500000
     38.66500000      34.59500000      40.70000000
     36.63000000      32.56000000      44.77000000
     36.63000000      36.63000000       8.14000000
     36.63000000      38.66500000      10.17500000
     38.66500000      36.63000000      10.17500000
     36.63000000      36.63000000      12.21000000
     36.63000000      38.66500000      14.24500000
     38.66500000      36.63000000      14.24500000
     38.66500000      38.66500000      12.21000000
     36.63000000      36.63000000      16.28000000
     36.63000000      38.66500000      18.31500000
     38.66500000      36.63000000      18.31500000
     38.66500000      38.66500000      16.28000000
     36.63000000      36.63000000      20.35000000
     36.63000000      38.66500000      22.38500000
     38.66500000      36.63000000      22.38500000
     38.66500000      38.66500000      20.35000000
     36.63000000      36.63000000      24.42000000
     36.63000000      38.66500000      26.45500000
     38.66500000      36.63000000      26.45500000
     38.66500000      38.66500000      24.42000000
     36.63000000      36.63000000      28.49000000
     36.63000000      38.66500000      30.52500000
     38.66500000      36.63000000      30.52500000
     38.66500000      38.66500000      28.49000000
     36.63000000      36.63000000      32.56000000
     36.63000000      38.66500000      34.59500000
     38.66500000      36.63000000      34.59500000
     38.66500000      38.66500000      32.56000000
     36.63000000      36.63000000      36.63000000
     36.63000000      38.66500000      38.66500000
     38.66500000      36.63000000      38.66500000
     38.66500000      38.66500000      36.63000000
     36.63000000      36.63000000      40.70000000
     36.63000000      40.70000000      12.21000000
     36.63000000      42.73500000      14.24500000
     38.66500000      40.70000000      14.24500000
     36.63000000      40.70000000      16.28000000
     36.63000000      42.73500000      18.31500000
     38.66500000      40.70000000      18.31500000
     38.66500000      42.73500000      16.28000000
     36.63000000      40.70000000      20.35000000
     36.63000000      42.73500000      22.38500000
     38.66500000      40.70000000      22.38500000
     38.66500000      42.73500000      20.35000000
     36.63000000      40.70000000      24.42000000
     36.63000000      42.73500000      26.45500000
     38.66500000      40.70000000      26.45500000
     38.66500000      42.73500000      24.42000000
     36.63000000      40.70000000      28.49000000
     36.63000000      42.73500000      30.52500000
     38.66500000      40.70000000      30.52500000
     38.66500000      42.73500000      28.49000000
     36.63000000      40.70000000      32.56000000
     36.63000000      42.73500000      34.59500000
     38.66500000      40.70000000      34.59500000
     38.66500000      42.73500000      32.56000000
     36.63000000      40.70000000      36.63000000
     36.63000000      44.77000000      16.28000000
     36.63000000      46.80500000      18.31500000
     38.66500000      44.77000000      18.31500000
     36.63000000      44.77000000      20.35000000
     36.63000000      46.80500000      22.38500000
     38.66500000      44.77000000      22.38500000
     38.66500000      46.80500000      20.35000000
     36.63000000      44.77000000      24.42000000
     36.63000000      46.80500000      26.45500000
     38.66500000      44.77000000      26.45500000
     38.66500000      46.80500000      24.42000000
     36.63000000      44.77000000      28.49000000
     36.63000000      46.80500000      30.52500000
     38.66500000      44.77000000      30.52500000
     38.66500000      46.80500000      28.49000000
     36.63000000      44.77000000      32.56000000
     36.63000000      48.84000000      20.35000000
     36.63000000      48.84000000      24.42000000
     36.63000000      48.84000000      28.49000000
     40.70000000       6.10500000      18.31500000
     40.70000000       4.07000000      20.35000000
     40.70000000       6.10500000      22.38500000
     42.73500000       6.10500000      20.35000000
     40.70000000       4.07000000      24.42000000
     40.70000000       6.10500000      26.45500000
     42.73500000       6.10500000      24.42000000
     40.70000000       4.07000000      28.49000000
     40.70000000       6.10500000      30.52500000
     42.73500000       6.10500000      28.49000000
     40.70000000      10.17500000      14.24500000
     40.70000000       8.14000000      16.28000000
     40.70000000      10.17500000      18.31500000
     42.73500000       8.14000000      18.31500000
     42.73500000      10.17500000      16.28000000
     40.70000000       8.14000000      20.35000000
     40.70000000      10.17500000      22.38500000
     42.73500000       8.14000000      22.38500000
     42.73500000      10.17500000      20.35000000
     40.70000000       8.14000000      24.42000000
     40.70000000      10.17500000      26.45500000
     42.73500000       8.14000000      26.45500000
     42.73500000      10.17500000      24.42000000
     40.70000000       8.14000000      28.49000000
     40.70000000      10.17500000      30.52500000
     42.73500000       8.14000000      30.52500000
     42.73500000      10.17500000      28.49000000
     40.70000000       8.14000000      32.56000000
     40.70000000      10.17500000      34.59500000
     42.73500000      10.17500000      32.56000000
     40.70000000      14.24500000      10.17500000
     40.70000000      12.21000000      12.21000000
     40.70000000      14.24500000      14.24500000
     42.73500000      12.21000000      14.24500000
     42.73500000      14.24500000      12.21000000
     40.70000000      12.21000000      16.28000000
     40.70000000      14.24500000      18.31500000
     42.73500000      12.21000000      18.31500000
     42.73500000      14.24500000      16.28000000
     40.70000000      12.21000000      20.35000000
     40.70000000      14.24500000      22.38500000
     42.73500000      12.21000000      22.38500000
     42.73500000      14.24500000      20.35000000
     40.70000000      12.21000000      24.42000000
     40.70000000      14.24500000      26.45500000
     42.73500000      12.21000000      26.45500000
     42.73500000      14.24500000      24.42000000
     40.70000000      12.21000000      28.49000000
     40.70000000      14.24500000      30.52500000
     42.73500000      12.21000000      30.52500000
     42.73500000      14.24500000      28.49000000
     40.70000000      12.21000000      32.56000000
     40.70000000      14.24500000      34.59500000
     42.73500000      12.21000000      34.59500000
     42.73500000      14.24500000      32.56000000
     40.70000000      12.21000000      36.63000000
     40.70000000      14.24500000      38.66500000
     42.73500000      14.24500000      36.63000000
     40.70000000      18.31500000       6.10500000
     40.70000000      16.28000000       8.14000000
     40.70000000      18.31500000      10.17500000
     42.73500000      16.28000000      10.17500000
     42.73500000      18.31500000       8.14000000
     40.70000000      16.28000000      12.21000000
     40.70000000      18.31500000      14.24500000
     42.73500000      16.28000000      14.24500000
     42.73500000      18.31500000      12.21000000
     40.70000000      16.28000000      16.28000000
     40.70000000      18.31500000      18.31500000
     42.73500000      16.28000000      18.31500000
     42.73500000      18.31500000      16.28000000
     40.70000000      16.28000000      20.35000000
     40.70000000      18.31500000      22.38500000
     42.73500000      16.28000000      22.38500000
     42.73500000      18.31500000      20.35000000
     40.70000000      16.28000000      24.42000000
     40.70000000      18.31500000      26.45500000
     42.73500000      16.28000000      26.45500000
     42.73500000      18.31500000      24.42000000
     40.70000000      16.28000000      28.49000000
     40.70000000      18.31500000      30.52500000
     42.73500000      16.28000000      30.52500000
     42.73500000      18.31500000      28.49000000
     40.70000000      16.28000000      32.56000000
     40.70000000      18.31500000      34.59500000
     42.73500000      16.28000000      34.59500000
     42.73500000      18.31500000      32.56000000
     40.70000000      16.28000000      36.63000000
     40.70000000      18.31500000      38.66500000
     42.73500000      16.28000000      38.66500000
     42.73500000      18.31500000      36.63000000
     40.70000000      16.28000000      40.70000000
     40.70000000      18.31500000      42.73500000
     42.73500000      18.31500000      40.70000000
     40.70000000      20.35000000       4.07000000
     40.70000000      22.38500000       6.10500000
     42.73500000      20.35000000       6.10500000
     40.70000000      20.35000000       8.14000000
     40.70000000      22.38500000      10.17500000
     42.73500000      20.35000000      10.17500000
     42.73500000      22.38500000       8.14000000
     40.70000000      20.35000000      12.21000000
     40.70000000      22.38500000      14.24500000
     42.73500000      20.35000000      14.24500000
     42.73500000      22.38500000      12.21000000
     40.70000000      20.35000000      16.28000000
     40.70000000      22.38500000      18.31500000
     42.73500000      20.35000000      18.31500000
     42.73500000      22.38500000      16.28000000
     40.70000000      20.35000000      20.35000000
     40.70000000      22.38500000      22.38500000
     42.73500000      20.35000000      22.38500000
     42.73500000      22.38500000      20.35000000
     40.70000000      20.35000000      24.42000000
     40.70000000      22.38500000      26.45500000
     42.73500000      20.35000000      26.45500000
     42.73500000      22.38500000      24.42000000
     40.70000000      20.35000000      28.49000000
     40.70000000      22.38500000      30.52500000
     42.73500000      20.35000000      30.52500000
     42.73500000      22.38500000      28.49000000
     40.70000000      20.35000000      32.56000000
     40.70000000      22.38500000      34.59500000
     42.73500000      20.35000000      34.59500000
     42.73500000      22.38500000      32.56000000
     40.70000000      20.35000000      36.63000000
     40.70000000      22.38500000      38.66500000
     42.73500000      20.35000000      38.66500000
     42.73500000      22.38500000      36.63000000
     40.70000000      20.35000000      40.70000000
     40.70000000      22.38500000      42.73500000
     42.73500000      20.35000000      42.73500000
     42.73500000      22.38500000      40.70000000
     40.70000000      20.35000000      44.77000000
     40.70000000      24.42000000       4.07000000
     40.70000000      26.45500000       6.10500000
     42.73500000      24.42000000       6.10500000
     40.70000000      24.42000000       8.14000000
     40.70000000      26.45500000      10.17500000
     42.73500000      24.42000000      10.17500000
     42.73500000      26.45500000       8.14000000
     40.70000000      24.42000000      12.21000000
     40.70000000      26.45500000      14.24500000
     42.73500000      24.42000000      14.24500000
     42.73500000      26.45500000      12.21000000
     40.70000000      24.42000000      16.28000000
     40.70000000      26.45500000      18.31500000
     42.73500000      24.42000000      18.31500000
     42.73500000      26.45500000      16.28000000
     40.70000000      24.42000000      20.35000000
     40.70000000      26.45500000      22.38500000
     42.73500000      24.42000000      22.38500000
     42.73500000      26.45500000      20.35000000
     40.70000000      24.42000000      24.42000000
     40.70000000      26.45500000      26.45500000
     42.73500000      24.42000000      26.45500000
     42.73500000      26.45500000      24.42000000
     40.70000000      24.42000000      28.49000000
     40.70000000      26.45500000      30.52500000
     42.73500000      24.42000000      30.52500000
     42.73500000      26.45500000      28.49000000
     40.70000000      24.42000000      32.56000000
     40.70000000      26.45500000      34.59500000
     42.73500000      24.42000000      34.59500000
     42.73500000      26.45500000      32.56000000
     40.70000000      24.42000000      36.63000000
     40.70000000      26.45500000      38.66500000
     42.73500000      24.42000000      38.66500000
     42.73500000      26.45500000      36.63000000
     40.70000000      24.42000000      40.70000000
     40.70000000      26.45500000      42.73500000
     42.73500000      24.42000000      42.73500000
     42.73500000      26.45500000      40.70000000
     40.70000000      24.42000000      44.77000000
     40.70000000      28.49000000       4.07000000
     40.70000000      30.52500000       6.10500000
     42.73500000      28.49000000       6.10500000
     40.70000000      28.49000000       8.14000000
     40.70000000      30.52500000      10.17500000
     42.73500000      28.49000000      10.17500000
     42.73500000      30.52500000       8.14000000
     40.70000000      28.49000000      12.21000000
     40.70000000      30.52500000      14.24500000
     42.73500000      28.49000000      14.24500000
     42.73500000      30.52500000      12.21000000
     40.70000000      28.49000000      16.28000000
     40.70000000      30.52500000      18.31500000
     42.73500000      28.49000000      18.31500000
     42.73500000      30.52500000      16.28000000
     40.70000000      28.49000000      20.35000000
     40.70000000      30.52500000      22.38500000
     42.73500000      28.49000000      22.38500000
     42.73500000      30.52500000      20.35000000
     40.70000000      28.49000000      24.42000000
     40.70000000      30.52500000      26.45500000
     42.73500000      28.49000000      26.45500000
     42.73500000      30.52500000      24.42000000
     40.70000000      28.49000000      28.49000000
     40.70000000      30.52500000      30.52500000
     42.73500000      28.49000000      30.52500000
     42.73500000      30.52500000      28.49000000
     40.70000000      28.49000000      32.56000000
     40.70000000      30.52500000      34.59500000
     42.73500000      28.49000000      34.59500000
     42.73500000      30.52500000      32.56000000
     40.70000000      28.49000000      36.63000000
     40.70000000      30.52500000      38.66500000
     42.73500000      28.49000000      38.66500000
     42.73500000      30.52500000      36.63000000
     40.70000000      28.49000000      40.70000000
     40.70000000      30.52500000      42.73500000
     42.73500000      28.49000000      42.73500000
     42.73500000      30.52500000      40.70000000
     40.70000000      28.49000000      44.77000000
     40.70000000      32.56000000       8.14000000
     40.70000000      34.59500000      10.17500000
     42.73500000      32.56000000      10.17500000
     40.70000000      32.56000000      12.21000000
     40.70000000      34.59500000      14.24500000
     42.73500000      32.56000000      14.24500000
     42.73500000      34.59500000      12.21000000
     40.70000000      32.56000000      16.28000000
     40.70000000      34.59500000      18.31500000
     42.73500000      32.56000000      18.31500000
     42.73500000      34.59500000      16.28000000
     40.70000000      32.56000000      20.35000000
     40.70000000      34.59500000      22.38500000
     42.73500000      32.56000000      22.38500000
     42.73500000      34.59500000      20.35000000
     40.70000000      32.56000000      24.42000000
     40.70000000      34.59500000      26.45500000
     42.73500000      32.56000000      26.45500000
     42.73500000      34.59500000      24.42000000
     40.70000000      32.56000000      28.49000000
     40.70000000      34.59500000      30.52500000
     42.73500000      32.56000000      30.52500000
     42.73500000      34.59500000      28.49000000
     40.70000000      32.56000000      32.56000000
     40.70000000      34.59500000      34.59500000
     42.73500000      32.56000000      34.59500000
     42.73500000      34.59500000      32.56000000
     40.70000000      32.56000000      36.63000000
     40.70000000      34.59500000      38.66500000
     42.73500000      32.56000000      38.66500000
     42.73500000      34.59500000      36.63000000
     40.70000000      32.56000000      40.70000000
     40.70000000      36.63000000      12.21000000
     40.70000000      38.66500000      14.24500000
     42.73500000      36.63000000      14.24500000
     40.70000000      36.63000000      16.28000000
     40.70000000      38.66500000      18.31500000
     42.73500000      36.63000000      18.31500000
     42.73500000      38.66500000      16.28000000
     40.70000000      36.63000000      20.35000000
     40.70000000      38.66500000      22.38500000
     42.73500000      36.63000000      22.38500000
     42.73500000      38.66500000      20.35000000
     40.70000000      36.63000000      24.42000000
     40.70000000      38.66500000      26.45500000
     42.73500000      36.63000000      26.45500000
     42.73500000      38.66500000      24.42000000
     40.70000000      36.63000000      28.49000000
     40.70000000      38.66500000      30.52500000
     42.73500000      36.63000000      30.52500000
     42.73500000      38.66500000      28.49000000
     40.70000000      36.63000000      32.56000000
     40.70000000      38.66500000      34.59500000
     42.73500000      36.63000000      34.59500000
     42.73500000      38.66500000      32.56000000
     40.70000000      36.63000000      36.63000000
     40.70000000      40.70000000      16.28000000
     40.70000000      42.73500000      18.31500000
     42.73500000      40.70000000      18.31500000
     40.70000000      40.70000000      20.35000000
     40.70000000      42.73500000      22.38500000
     42.73500000      40.70000000      22.38500000
     42.73500000      42.73500000      20.35000000
     40.70000000      40.70000000      24.42000000
     40.70000000      42.73500000      26.45500000
     42.73500000      40.70000000      26.45500000
     42.73500000      42.73500000      24.42000000
     40.70000000      40.70000000      28.49000000
     40.70000000      42.73500000      30.52500000
     42.73500000      40.70000000      30.52500000
     42.73500000      42.73500000      28.49000000
     40.70000000      40.70000000      32.56000000
     40.70000000      44.77000000      20.35000000
     40.70000000      44.77000000      24.42000000
     40.70000000      44.77000000      28.49000000
     44.77000000      10.17500000      18.31500000
     44.77000000       8.14000000      20.35000000
     44.77000000      10.17500000      22.38500000
     46.80500000      10.17500000      20.35000000
     44.77000000       8.14000000      24.42000000
     44.77000000      10.17500000      26.45500000
     46.80500000      10.17500000      24.42000000
     44.77000000       8.14000000      28.49000000
     44.77000000      10.17500000      30.52500000
     46.80500000      10.17500000      28.49000000
     44.77000000      14.24500000      14.24500000
     44.77000000      12.21000000      16.28000000
     44.77000000      14.24500000      18.31500000
     46.80500000      12.21000000      18.31500000
     46.80500000      14.24500000      16.28000000
     44.77000000      12.21000000      20.35000000
     44.77000000      14.24500000      22.38500000
     46.80500000      12.21000000      22.38500000
     46.80500000      14.24500000      20.35000000
     44.77000000      12.21000000      24.42000000
     44.77000000      14.24500000      26.45500000
     46.80500000      12.21000000      26.45500000
     46.80500000      14.24500000      24.42000000
     44.77000000      12.21000000      28.49000000
     44.77000000      14.24500000      30.52500000
     46.80500000      12.21000000      30.52500000
     46.80500000      14.24500000      28.49000000
     44.77000000      12.21000000      32.56000000
     44.77000000      14.24500000      34.59500000
     46.80500000      14.24500000      32.56000000
     44.77000000      18.31500000      10.17500000
     44.77000000      16.28000000      12.21000000
     44.77000000      18.31500000      14.24500000
     46.80500000      16.28000000      14.24500000
     46.80500000      18.31500000      12.21000000
     44.77000000      16.28000000      16.28000000
     44.77000000      18.31500000      18.31500000
     46.80500000      16.28000000      18.31500000
     46.80500000      18.31500000      16.28000000
     44.77000000      16.28000000      20.35000000
     44.77000000      18.31500000      22.38500000
     46.80500000      16.28000000      22.38500000
     46.80500000      18.31500000      20.35000000
     44.77000000      16.28000000      24.42000000
     44.77000000      18.31500000      26.45500000
     46.80500000      16.28000000      26.45500000
     46.80500000      18.31500000      24.42000000
     44.77000000      16.28000000      28.49000000
     44.77000000      18.31500000      30.52500000
     46.80500000      16.28000000      30.52500000
     46.80500000      18.31500000      28.49000000
     44.77000000      16.28000000      32.56000000
